# .PCD v0.7 - Point Cloud Data file format
VERSION 0.7
FIELDS x y z
SIZE 4 4 4
TYPE F F F
COUNT 1 1 1
WIDTH 1892
HEIGHT 1
VIEWPOINT 0 0 0 0 0 0 1
POINTS 1892
DATA ascii
7.2394 2.86909 -1.55955
7.23087 2.84988 -1.55944
7.22031 2.83161 -1.56031
7.22159 2.82064 -1.5593
7.208 2.8033 -1.56015
7.1954 2.78598 -1.562
7.21825 2.75555 -1.55216
7.19147 2.74388 -1.55889
7.1799 2.72559 -1.55976
7.16803 2.71929 -1.56263
7.17772 2.69353 -1.55668
7.15703 2.67901 -1.56046
7.15859 2.65704 -1.55844
7.15109 2.63685 -1.55834
7.14962 2.61581 -1.55629
7.14413 2.59567 -1.55521
7.15147 2.58285 -1.55225
7.13079 2.56834 -1.55604
7.1506 2.53883 -1.54717
7.12988 2.52531 -1.55196
6.87995 1.82293 -1.56346
6.93394 1.79027 -1.54591
6.93723 1.77935 -1.54392
6.93979 1.75741 -1.54191
6.92622 1.73907 -1.54375
6.92572 1.71905 -1.54272
6.92928 1.69714 -1.54071
6.90662 1.68057 -1.54648
6.92302 1.66697 -1.54061
6.91347 1.64773 -1.54249
6.89787 1.63034 -1.54531
6.91654 1.6058 -1.53845
6.91506 1.58476 -1.5384
6.89038 1.56914 -1.54414
6.90377 1.55547 -1.53924
6.90931 1.5346 -1.53626
6.88365 1.51796 -1.54299
6.89525 1.49524 -1.53906
6.89477 1.47422 -1.53803
6.87616 1.45675 -1.54182
6.8938 1.43319 -1.53595
6.89608 1.42224 -1.53495
6.87445 1.4047 -1.54072
6.88202 1.38288 -1.53676
6.88456 1.36194 -1.53475
6.874 1.34267 -1.53762
6.87654 1.32173 -1.5356
6.87882 1.31079 -1.53461
6.86623 1.29247 -1.53746
6.87884 1.26978 -1.53254
6.87835 1.24976 -1.5315
6.85471 1.23216 -1.53825
6.86731 1.20947 -1.53333
6.87185 1.18858 -1.53134
6.84997 1.18103 -1.53712
6.87766 1.15672 -1.52834
6.86811 1.13748 -1.53022
6.85452 1.11913 -1.53407
6.86713 1.09644 -1.52915
6.86263 1.07632 -1.52907
6.84878 1.06797 -1.53393
6.8825 1.04381 -1.52221
6.85786 1.02619 -1.52895
6.84429 1.00685 -1.53279
6.88001 0.982735 -1.52108
6.85739 0.964163 -1.52784
6.85261 0.955042 -1.52878
6.86619 0.933376 -1.52387
6.85463 0.914082 -1.52673
6.84611 0.893863 -1.52862
6.86169 0.872247 -1.52373
6.85214 0.853002 -1.52661
6.85065 0.831959 -1.52656
6.86496 0.821315 -1.52168
6.85844 0.801146 -1.52358
6.83784 0.782627 -1.52836
6.86147 0.76021 -1.52154
6.85292 0.740992 -1.52343
6.83435 0.721522 -1.52823
6.84767 0.709852 -1.52433
6.85622 0.68906 -1.52138
6.82959 0.670389 -1.5291
6.86021 0.649147 -1.52035
6.85469 0.629004 -1.52127
6.83514 0.608509 -1.52705
6.84569 0.587768 -1.52311
6.84793 0.57782 -1.52312
6.8354 0.557502 -1.52597
6.84795 0.536809 -1.52205
6.84242 0.516665 -1.52397
6.81883 0.497069 -1.53071
6.8374 0.476528 -1.52485
6.83364 0.466431 -1.5258
6.8221 0.446135 -1.52966
6.83365 0.425419 -1.52573
6.82913 0.4053 -1.52666
6.8196 0.385056 -1.52954
6.83315 0.364388 -1.52563
6.83264 0.34437 -1.52559
6.80682 0.33372 -1.53333
6.83942 0.31353 -1.52361
6.82788 0.293234 -1.52746
6.80935 0.271764 -1.53325
6.82488 0.252147 -1.52837
6.82336 0.232102 -1.52932
6.81361 0.220855 -1.53221
6.83014 0.201262 -1.52733
6.82863 0.181219 -1.52729
6.80408 0.159598 -1.53502
6.83164 0.140281 -1.52725
6.82514 0.119112 -1.52915
6.8126 0.0987917 -1.533
6.81688 0.087895 -1.53202
6.82138 0.068001 -1.53103
6.81488 0.046832 -1.53294
6.8364 0.0283638 -1.52711
6.82689 0.00711947 -1.52999
6.81838 -0.0141003 -1.53287
6.83564 -0.0226715 -1.52802
6.82212 -0.0440175 -1.53286
6.81161 -0.0652864 -1.53572
6.82813 -0.0848804 -1.53185
6.81862 -0.106125 -1.53472
6.81813 -0.127145 -1.53569
6.84066 -0.145587 -1.52887
6.8419 -0.155559 -1.52886
6.81838 -0.178155 -1.5366
6.82788 -0.197925 -1.53466
6.82439 -0.219018 -1.53559
6.83588 -0.237737 -1.53267
6.8374 -0.258706 -1.53265
6.83265 -0.269829 -1.53459
6.82913 -0.289925 -1.53652
6.83365 -0.310818 -1.53553
6.82414 -0.332064 -1.53941
6.83164 -0.351883 -1.53744
6.83414 -0.371828 -1.53744
6.82939 -0.382951 -1.53937
6.8279 -0.403995 -1.54032
6.8324 -0.423889 -1.53933
6.8409 -0.443685 -1.53838
6.83441 -0.465855 -1.54128
6.84092 -0.485698 -1.53931
6.84216 -0.49567 -1.53931
6.84866 -0.515515 -1.53834
6.84915 -0.535511 -1.53931
6.85765 -0.555305 -1.53736
6.84415 -0.57765 -1.54219
6.84867 -0.598546 -1.5422
6.83918 -0.620791 -1.54608
6.85141 -0.628488 -1.54218
6.9531 -0.64395 -1.51311
6.94734 -0.655099 -1.51604
6.94983 -0.675044 -1.51603
6.95132 -0.695013 -1.51601
6.94982 -0.71606 -1.51796
6.9583 -0.734854 -1.51601
6.96779 -0.753623 -1.51407
6.95604 -0.765923 -1.51894
6.96555 -0.785692 -1.51699
6.96405 -0.806739 -1.51894
6.95656 -0.828933 -1.52184
6.97301 -0.845528 -1.51797
6.98051 -0.865349 -1.517
6.985 -0.885244 -1.51701
6.99422 -0.893016 -1.51409
6.98874 -0.915161 -1.517
6.99323 -0.935057 -1.51701
7.0027 -0.953828 -1.51607
7.00719 -0.973724 -1.51608
7.00768 -0.993719 -1.51705
7.00594 -1.00477 -1.51802
7.01043 -1.02466 -1.51802
7.01991 -1.04343 -1.51608
7.0244 -1.06333 -1.51609
7.01989 -1.08445 -1.51902
7.03037 -1.10319 -1.51708
7.02863 -1.11424 -1.51905
7.04109 -1.13194 -1.51614
7.04357 -1.15188 -1.51713
7.04709 -1.1728 -1.51713
7.04957 -1.19275 -1.51812
7.0421 -1.21595 -1.52201
7.05654 -1.23259 -1.51912
7.06676 -1.24034 -1.5172
7.07326 -1.26019 -1.51623
7.06579 -1.28338 -1.52012
7.06726 -1.30335 -1.5221
7.09667 -1.31662 -1.51436
7.09018 -1.3388 -1.51726
7.10639 -1.34539 -1.5134
7.11188 -1.36526 -1.51342
7.1024 -1.38851 -1.51829
7.10391 -1.40948 -1.51927
7.11734 -1.42615 -1.51737
7.11985 -1.4471 -1.51836
7.1323 -1.4648 -1.51645
7.12957 -1.47587 -1.51741
7.13405 -1.49577 -1.51842
7.13853 -1.51566 -1.51943
7.15097 -1.53236 -1.51652
7.15548 -1.55325 -1.51752
7.16194 -1.5721 -1.51755
7.16319 -1.58207 -1.51755
7.17863 -1.59869 -1.51467
7.19306 -1.61534 -1.51278
7.21447 -1.62981 -1.50795
7.1841 -1.66059 -1.51962
7.20354 -1.67611 -1.51478
7.20478 -1.68608 -1.51577
7.20627 -1.70705 -1.51775
7.23761 -1.71727 -1.51003
7.24608 -1.73607 -1.50908
7.24558 -1.75709 -1.51104
7.26698 -1.77156 -1.50722
7.27344 -1.79041 -1.50725
7.26674 -1.80358 -1.51016
7.27817 -1.8203 -1.50824
7.54945 -2.3948 -1.50185
7.56483 -2.40942 -1.49997
7.56112 -2.42252 -1.50292
7.56265 -2.44449 -1.5049
7.55622 -2.46967 -1.50979
7.58052 -2.48006 -1.50501
7.57115 -2.50831 -1.51187
7.59249 -2.51978 -1.50705
7.60787 -2.53441 -1.50517
7.60218 -2.54856 -1.5091
7.61162 -2.56633 -1.50916
7.6171 -2.5862 -1.51018
7.62556 -2.605 -1.51022
7.64689 -2.61647 -1.50641
7.6573 -2.63322 -1.50648
7.65262 -2.64735 -1.50941
7.65117 -2.6714 -1.51336
7.66161 -2.68914 -1.51343
7.68392 -2.69959 -1.50862
7.68445 -2.72259 -1.51259
7.70179 -2.73517 -1.50973
7.71818 -2.74976 -1.50686
7.71645 -2.76181 -1.50982
7.73184 -2.77644 -1.50794
7.7403 -2.79523 -1.50799
7.75467 -2.80988 -1.5071
7.76511 -2.82763 -1.50717
7.77553 -2.84438 -1.50724
7.77679 -2.85535 -1.50824
7.79217 -2.86998 -1.50636
7.8006 -2.88778 -1.50741
7.81104 -2.90553 -1.50748
7.82146 -2.92228 -1.50755
7.84178 -2.93377 -1.50372
7.86012 -2.94632 -1.50087
7.85346 -2.9615 -1.50478
7.86883 -2.97612 -1.50391
7.87531 -2.99597 -1.50493
7.88572 -3.01272 -1.505
7.90604 -3.02422 -1.50218
7.92338 -3.03679 -1.49932
7.93058 -3.04462 -1.49937
7.93902 -3.06242 -1.49942
7.94549 -3.08226 -1.50145
7.94998 -3.10317 -1.50446
7.98312 -3.10534 -1.49577
7.98959 -3.12519 -1.4978
7.98987 -3.13719 -1.49978
8.00424 -3.15184 -1.49889
8.02848 -3.15924 -1.49411
8.04878 -3.16974 -1.49028
8.03945 -3.19999 -1.49814
8.05184 -3.21568 -1.49723
8.06819 -3.22928 -1.49637
8.07736 -3.23506 -1.49444
8.09664 -3.24558 -1.49261
8.10904 -3.26128 -1.4917
8.11157 -3.28423 -1.49468
8.13974 -3.28853 -1.48894
8.15213 -3.30423 -1.48903
8.16029 -3.31003 -1.4881
8.17073 -3.32778 -1.48817
8.18508 -3.34143 -1.48728
8.20437 -3.35196 -1.48445
8.21085 -3.37281 -1.48747
8.22423 -3.38748 -1.48657
8.24154 -3.39906 -1.48472
8.24971 -3.40586 -1.48378
8.26702 -3.41743 -1.48193
8.27151 -3.43833 -1.48494
8.28687 -3.45195 -1.48306
8.31107 -3.45836 -1.47927
8.32444 -3.47303 -1.47838
8.33949 -3.47366 -1.47552
8.34991 -3.49041 -1.47559
8.36821 -3.50196 -1.47374
8.37468 -3.52181 -1.47577
8.4038 -3.52408 -1.47004
8.4221 -3.53463 -1.46719
8.41547 -3.55181 -1.4721
8.44557 -3.55306 -1.46538
8.45698 -3.56978 -1.46646
8.47231 -3.58241 -1.46459
8.4906 -3.59296 -1.46274
8.4941 -3.61488 -1.46674
8.49638 -3.62683 -1.46774
8.52548 -3.62811 -1.46201
8.52997 -3.64901 -1.46502
8.52956 -3.67503 -1.46997
8.55276 -3.68146 -1.46618
8.56513 -3.69616 -1.46627
8.57262 -3.71699 -1.46831
8.59156 -3.71251 -1.4635
8.59609 -3.73541 -1.4675
8.61044 -3.74906 -1.46661
8.61791 -3.76889 -1.46865
8.6391 -3.77537 -1.46584
8.65639 -3.78594 -1.46399
8.66457 -3.79274 -1.46305
8.66808 -3.81567 -1.46805
8.67654 -3.83447 -1.4691
8.69481 -3.84502 -1.46825
8.71308 -3.85457 -1.46541
8.71858 -3.87645 -1.46942
8.73459 -3.87505 -1.46558
8.74793 -3.88872 -1.46568
8.7672 -3.89825 -1.46284
8.7776 -3.915 -1.46391
8.79292 -3.92763 -1.46404
8.80236 -3.9464 -1.4661
8.82258 -3.9539 -1.46327
8.83367 -3.95663 -1.46137
8.84311 -3.9754 -1.46343
8.86331 -3.98191 -1.46061
8.87178 -4.00171 -1.46266
8.88318 -4.01843 -1.46374
8.90044 -4.02801 -1.46189
8.91448 -4.02866 -1.46002
8.93076 -4.03926 -1.45815
8.94412 -4.05394 -1.45925
8.95748 -4.06861 -1.45936
8.97182 -4.08227 -1.45947
8.9881 -4.09287 -1.4586
8.99231 -4.10177 -1.45963
9.00371 -4.11849 -1.46071
9.03176 -4.1178 -1.45497
9.0461 -4.13145 -1.45509
9.04673 -4.15945 -1.46105
9.07671 -4.1557 -1.45433
9.09105 -4.16935 -1.45445
9.10116 -4.1731 -1.45354
9.11939 -4.18165 -1.45169
9.13077 -4.19738 -1.45277
9.14804 -4.20796 -1.45192
9.16628 -4.21651 -1.45008
9.1767 -4.23426 -1.45215
9.17603 -4.24929 -1.45612
9.20599 -4.24454 -1.4494
9.21448 -4.26534 -1.45145
9.21511 -4.29334 -1.45841
9.24311 -4.29065 -1.45168
9.26722 -4.29305 -1.4479
9.26069 -4.31522 -1.4548
9.28772 -4.31355 -1.44906
9.30497 -4.32313 -1.44821
9.3076 -4.35108 -1.45419
9.33851 -4.34431 -1.44649
9.35968 -4.34978 -1.44368
9.35316 -4.37196 -1.45058
9.37627 -4.37439 -1.44579
9.3945 -4.38294 -1.44495
9.402 -4.40477 -1.44899
9.42606 -4.40517 -1.44421
9.44527 -4.4127 -1.44238
9.45568 -4.43045 -1.44545
9.47649 -4.41993 -1.43866
9.48302 -4.44278 -1.44269
9.49248 -4.46256 -1.44574
9.52141 -4.45683 -1.43902
9.53477 -4.47151 -1.44012
9.54127 -4.49336 -1.44415
9.56401 -4.47979 -1.43739
9.57835 -4.49344 -1.4375
9.58876 -4.51119 -1.44057
9.61281 -4.5116 -1.43679
9.63102 -4.51915 -1.43495
9.64534 -4.5318 -1.43507
9.65967 -4.54546 -1.43618
9.66877 -4.54923 -1.43526
9.68501 -4.55884 -1.43539
9.71103 -4.55719 -1.42964
9.72727 -4.56679 -1.42978
9.72409 -4.60389 -1.43969
9.75396 -4.59515 -1.43198
9.77084 -4.58872 -1.42815
9.76671 -4.62785 -1.43805
9.80142 -4.61198 -1.4284
9.81767 -4.62158 -1.42854
9.83105 -4.63726 -1.42964
9.85794 -4.63059 -1.4239
9.86026 -4.64454 -1.4269
9.86584 -4.67042 -1.43291
9.89472 -4.66269 -1.4262
9.90612 -4.67942 -1.42828
9.91945 -4.6931 -1.42938
9.94446 -4.69148 -1.42462
9.94773 -4.70341 -1.42763
9.96206 -4.71706 -1.42874
9.98411 -4.71751 -1.42495
10.0023 -4.72506 -1.42411
10.0166 -4.73872 -1.42522
10.0339 -4.7473 -1.42537
10.0521 -4.75485 -1.42453
10.0572 -4.76273 -1.42556
10.0764 -4.76826 -1.42373
10.0956 -4.77378 -1.4219
10.1147 -4.78031 -1.42107
10.1232 -4.80211 -1.42512
10.1453 -4.80157 -1.42233
10.1563 -4.8033 -1.42043
10.1706 -4.81695 -1.42254
10.1859 -4.82858 -1.42266
10.2109 -4.82296 -1.41791
10.229 -4.82951 -1.41707
10.2404 -4.84724 -1.42015
10.2634 -4.84567 -1.41637
10.2629 -4.86569 -1.42133
10.2859 -4.86512 -1.41754
10.3002 -4.87778 -1.41966
10.3155 -4.88941 -1.41978
10.3327 -4.89798 -1.41993
10.3519 -4.90251 -1.4181
10.3638 -4.90022 -1.41622
10.3791 -4.91184 -1.41734
10.3954 -4.92245 -1.41748
10.4106 -4.93308 -1.41861
10.4269 -4.94368 -1.41874
10.448 -4.94516 -1.41594
10.457 -4.94794 -1.41602
10.4762 -4.95347 -1.41519
10.4857 -4.97524 -1.41924
10.5106 -4.96962 -1.41449
10.5258 -4.97925 -1.41561
10.5344 -5.00506 -1.42165
10.5512 -4.99263 -1.41583
10.5713 -4.99614 -1.41401
10.5798 -5.01994 -1.41906
10.6028 -5.01737 -1.41528
10.62 -5.02495 -1.41543
10.6362 -5.03556 -1.41656
10.6443 -5.03936 -1.41663
10.6635 -5.04489 -1.4148
10.6778 -5.05854 -1.41691
10.6969 -5.06307 -1.41609
10.7189 -5.06052 -1.4123
10.7304 -5.08126 -1.41737
10.7495 -5.08378 -1.41555
10.7605 -5.08251 -1.41365
10.7748 -5.09817 -1.41576
10.793 -5.10272 -1.41492
10.8102 -5.1103 -1.41507
10.8235 -5.12698 -1.41817
10.8436 -5.12948 -1.41636
10.8527 -5.13326 -1.41644
10.8661 -5.14994 -1.41954
10.888 -5.1464 -1.41675
10.9024 -5.16005 -1.41886
10.9139 -5.18178 -1.42293
10.9416 -5.16609 -1.41622
10.9468 -5.17696 -1.41825
10.9612 -5.19262 -1.42136
10.985 -5.18402 -1.4166
11.0051 -5.18453 -1.41379
11.0147 -5.21331 -1.42083
11.0395 -5.20069 -1.41508
11.0519 -5.22039 -1.41917
11.0601 -5.2272 -1.42023
11.0801 -5.2277 -1.41842
11.0992 -5.23123 -1.41759
11.1107 -5.25196 -1.42167
11.1327 -5.25041 -1.41888
11.1508 -5.25497 -1.41904
11.1542 -5.2729 -1.42404
11.1771 -5.26733 -1.41927
11.1905 -5.28501 -1.42337
11.2105 -5.28451 -1.42155
11.2277 -5.29209 -1.4217
11.2449 -5.30067 -1.42285
11.2583 -5.31936 -1.42695
11.2721 -5.31001 -1.42309
11.2912 -5.31354 -1.42227
11.3009 -5.34332 -1.42931
11.3266 -5.32767 -1.42258
11.3438 -5.33525 -1.42373
11.3572 -5.35494 -1.42782
11.3729 -5.33754 -1.421
11.392 -5.34207 -1.42117
11.3998 -5.3769 -1.43018
11.4255 -5.36125 -1.42345
11.4426 -5.36883 -1.4246
11.4551 -5.39154 -1.42968
11.4689 -5.37919 -1.42483
11.4861 -5.38877 -1.42698
11.4977 -5.41651 -1.43404
11.5224 -5.40089 -1.4273
11.5368 -5.41654 -1.43041
11.555 -5.4241 -1.43157
11.564 -5.42487 -1.43065
11.5841 -5.42738 -1.42983
11.6022 -5.43094 -1.429
11.6241 -5.42539 -1.42621
11.6432 -5.42892 -1.42539
11.6548 -5.45565 -1.43245
11.6785 -5.44306 -1.4267
11.6866 -5.44886 -1.42876
11.6983 -5.4766 -1.43583
11.7257 -5.4499 -1.42613
11.7439 -5.45645 -1.42629
11.7602 -5.46906 -1.42942
11.7792 -5.46859 -1.4276
11.7929 -5.45424 -1.42175
11.8046 -5.48698 -1.43081
11.8255 -5.48046 -1.42802
11.8427 -5.48804 -1.42917
11.859 -5.50265 -1.4323
11.8799 -5.49813 -1.4295
11.8899 -5.49588 -1.4286
11.9053 -5.51351 -1.43272
11.9253 -5.51402 -1.4319
11.9425 -5.5206 -1.43205
11.9606 -5.52816 -1.43421
11.9788 -5.53271 -1.43437
11.9879 -5.53849 -1.43545
12.007 -5.54102 -1.43463
12.0269 -5.53753 -1.43282
12.0414 -5.55818 -1.43792
12.0577 -5.57379 -1.44205
12.0787 -5.57027 -1.43925
12.0904 -5.55897 -1.43538
12.1004 -5.60376 -1.4484
12.1222 -5.59321 -1.44363
12.1413 -5.59875 -1.4448
12.1577 -5.61336 -1.44893
12.1776 -5.61086 -1.44712
12.1967 -5.61339 -1.44629
12.2057 -5.61417 -1.44638
12.2284 -5.5996 -1.44061
12.2492 -5.58908 -1.43683
12.2674 -5.59864 -1.43898
12.2917 -5.56601 -1.42826
12.3144 -5.55044 -1.4225
12.3225 -5.55525 -1.42357
12.3433 -5.54573 -1.41978
12.3633 -5.54323 -1.41797
12.3814 -5.54779 -1.41914
12.4022 -5.53527 -1.41435
12.4185 -5.55188 -1.41848
12.4319 -5.52453 -1.40965
12.4519 -5.52403 -1.40884
12.4692 -5.53362 -1.41098
12.489 -5.52312 -1.40719
12.5072 -5.53368 -1.41034
12.5287 -5.50913 -1.40158
12.5451 -5.52874 -1.40771
12.556 -5.52247 -1.40482
12.575 -5.521 -1.404
12.593 -5.52156 -1.40317
12.6137 -5.51004 -1.39938
12.6309 -5.51862 -1.40153
12.65 -5.52215 -1.4027
12.6607 -5.50588 -1.39683
12.6788 -5.51044 -1.39799
12.697 -5.51799 -1.40015
12.7176 -5.50247 -1.39437
12.7357 -5.50303 -1.39454
12.7529 -5.51361 -1.39769
12.7645 -5.49631 -1.39182
12.7835 -5.49584 -1.391
12.8024 -5.48938 -1.38919
12.8205 -5.49493 -1.39035
12.8394 -5.48746 -1.38754
12.8574 -5.49002 -1.38871
12.8764 -5.48955 -1.38789
12.8862 -5.4773 -1.384
12.9045 -5.48986 -1.38815
12.9233 -5.4814 -1.38534
12.9422 -5.47493 -1.38253
12.9597 -5.49751 -1.38966
12.9792 -5.47401 -1.38188
12.9888 -5.45876 -1.37699
13.0072 -5.47532 -1.38214
13.0259 -5.46286 -1.37834
13.0448 -5.45639 -1.37652
13.0629 -5.45894 -1.37669
13.0818 -5.45447 -1.37487
13.0907 -5.45225 -1.37496
13.108 -5.46484 -1.3781
13.1276 -5.44634 -1.37232
13.1455 -5.4409 -1.3715
13.164 -5.46446 -1.37863
13.1824 -5.43399 -1.36885
13.1914 -5.43476 -1.36894
13.2096 -5.44432 -1.37209
13.2283 -5.43285 -1.36929
13.2463 -5.42941 -1.36746
13.2646 -5.44297 -1.37261
13.2831 -5.4225 -1.36582
13.3012 -5.42406 -1.36699
13.3103 -5.42984 -1.36806
13.3292 -5.42237 -1.36625
13.347 -5.41492 -1.36443
13.3653 -5.42948 -1.36858
13.3828 -5.40304 -1.36079
13.4009 -5.4106 -1.36395
13.4112 -5.42335 -1.36802
13.4286 -5.3949 -1.35923
13.4466 -5.39646 -1.3594
13.465 -5.41302 -1.36555
13.4826 -5.39558 -1.35974
13.5004 -5.38513 -1.35692
13.5107 -5.40189 -1.36299
13.5272 -5.37447 -1.35519
13.5452 -5.37602 -1.35536
13.5645 -5.39056 -1.36052
13.5821 -5.37212 -1.35571
13.599 -5.3657 -1.35388
13.6091 -5.36945 -1.35497
13.627 -5.36501 -1.35415
13.6449 -5.36157 -1.35332
13.6628 -5.35912 -1.35349
13.6796 -5.3497 -1.35067
13.6977 -5.35226 -1.35183
13.7168 -5.3588 -1.355
13.7243 -5.3336 -1.34711
13.7412 -5.32818 -1.34628
13.7617 -5.35369 -1.35443
13.7782 -5.33127 -1.34863
13.7951 -5.32585 -1.34679
13.8143 -5.33438 -1.34996
13.8218 -5.31219 -1.34407
13.8388 -5.31077 -1.34423
13.8579 -5.3163 -1.3464
13.8733 -5.28991 -1.33959
13.8927 -5.30544 -1.34474
13.9106 -5.302 -1.34392
13.9183 -5.2858 -1.34002
13.9351 -5.27838 -1.33819
13.9555 -5.29689 -1.34435
13.9711 -5.2775 -1.33953
13.989 -5.27606 -1.3397
14.0035 -5.25268 -1.33387
14.0148 -5.26542 -1.33796
14.0328 -5.26697 -1.33912
14.0497 -5.25856 -1.3373
14.0654 -5.24516 -1.33447
14.0833 -5.24472 -1.33464
14.1013 -5.24428 -1.33581
14.1169 -5.22288 -1.32999
14.1248 -5.21968 -1.32907
14.1438 -5.22222 -1.33124
14.1608 -5.2198 -1.3314
14.1787 -5.21536 -1.33058
14.1956 -5.20894 -1.32975
14.2112 -5.19455 -1.32692
14.2191 -5.18935 -1.325
14.2372 -5.19091 -1.32717
14.2539 -5.18149 -1.32534
14.2708 -5.17307 -1.32352
14.29 -5.18561 -1.32868
14.3045 -5.16324 -1.32285
14.3136 -5.16602 -1.32393
14.3337 -5.17353 -1.32811
14.3462 -5.14821 -1.32127
14.3675 -5.16169 -1.32644
14.3843 -5.15428 -1.32561
14.4012 -5.14986 -1.32478
14.4103 -5.15164 -1.32586
14.426 -5.13824 -1.32303
14.4418 -5.12985 -1.32219
14.4597 -5.12741 -1.32237
14.4766 -5.12199 -1.32253
14.4923 -5.1096 -1.3197
14.507 -5.09623 -1.31686
14.5171 -5.10198 -1.31895
14.534 -5.09657 -1.31812
14.5531 -5.1001 -1.32129
14.5699 -5.09368 -1.32046
14.5824 -5.06936 -1.31462
14.6004 -5.07092 -1.31578
14.6094 -5.0687 -1.31587
14.6284 -5.07224 -1.31904
14.6388 -5.04096 -1.31019
14.6622 -5.0624 -1.31838
14.6726 -5.03413 -1.31152
14.6939 -5.04662 -1.3167
14.6996 -5.03347 -1.31278
14.7165 -5.02905 -1.31294
14.7311 -5.01368 -1.31011
14.7491 -5.01224 -1.31128
14.7617 -4.99492 -1.30742
14.7818 -5.00143 -1.3106
14.8009 -5.00297 -1.31278
14.8131 -5.01468 -1.31787
14.8354 -5.03014 -1.32406
14.862 -5.05651 -1.33427
14.8746 -5.03719 -1.33042
14.8882 -5.02284 -1.32757
14.9083 -5.02736 -1.33075
14.9162 -5.02316 -1.32983
14.9277 -4.99786 -1.32398
14.9424 -4.98749 -1.32214
14.9518 -4.95624 -1.31427
14.9719 -4.96376 -1.31845
15.0048 -5.00798 -1.33469
15.2309 -5.06349 -1.37473
16.4001 -4.26343 -1.32603
16.3674 -4.18317 -1.29985
16.3316 -4.09899 -1.27165
16.3539 -4.11745 -1.28083
16.3935 -4.14451 -1.29416
16.4279 -4.16469 -1.30645
16.4829 -4.21438 -1.32889
16.4678 -4.16271 -1.31283
16.4526 -4.11005 -1.29677
16.445 -4.08321 -1.28875
16.4485 -4.05911 -1.28282
16.4685 -4.05763 -1.28601
16.475 -4.03845 -1.2831
16.4877 -4.02714 -1.28224
16.486 -3.99516 -1.27428
16.4929 -3.98999 -1.27435
16.5067 -3.98065 -1.27449
16.5194 -3.96833 -1.27363
16.5218 -3.94325 -1.2687
16.5428 -3.94374 -1.27289
16.5473 -3.92162 -1.26797
16.5562 -3.9194 -1.26906
16.5721 -3.91201 -1.27022
16.5766 -3.88989 -1.2663
16.6006 -3.89331 -1.27152
16.6175 -3.88789 -1.27369
16.6158 -3.85791 -1.26572
16.6367 -3.8574 -1.26992
16.6426 -3.85126 -1.26998
16.6543 -3.83896 -1.26911
16.665 -3.8257 -1.26824
16.6818 -3.81928 -1.2704
16.6884 -3.80011 -1.2665
16.7011 -3.78979 -1.26663
16.7162 -3.79443 -1.27077
16.7197 -3.77233 -1.26584
16.7263 -3.75416 -1.26293
16.7534 -3.75951 -1.27017
16.76 -3.74133 -1.26727
16.7717 -3.72904 -1.2664
16.7867 -3.73368 -1.27153
16.7872 -3.70865 -1.26558
16.7978 -3.69438 -1.2637
16.828 -3.70366 -1.27297
16.8223 -3.67078 -1.26397
16.8391 -3.66536 -1.26614
16.847 -3.66117 -1.26722
16.8475 -3.63614 -1.26126
16.8704 -3.63658 -1.26648
16.8862 -3.62919 -1.26764
16.8928 -3.61102 -1.26473
16.9015 -3.5958 -1.26384
16.9224 -3.59429 -1.26803
16.9201 -3.57934 -1.26404
16.9379 -3.5729 -1.26622
16.9568 -3.56844 -1.2694
16.9562 -3.54344 -1.26344
16.9618 -3.52529 -1.26052
16.9817 -3.52181 -1.26471
16.9783 -3.50688 -1.2607
17.0013 -3.50632 -1.26492
17.0171 -3.49894 -1.26708
17.0206 -3.47684 -1.26315
17.0323 -3.46555 -1.26328
17.0593 -3.46889 -1.26953
17.0478 -3.44516 -1.26246
17.0626 -3.43679 -1.26361
17.0774 -3.42743 -1.26477
17.0819 -3.40831 -1.26184
17.0916 -3.39406 -1.26095
17.1074 -3.38667 -1.26311
17.1102 -3.3776 -1.26216
17.128 -3.37116 -1.26433
17.1601 -3.37939 -1.27362
17.1586 -3.35341 -1.26765
17.1723 -3.34407 -1.26879
17.1942 -3.34154 -1.27301
17.1981 -3.33444 -1.27305
17.2128 -3.32408 -1.27421
17.2327 -3.31959 -1.2774
17.2403 -3.3034 -1.2765
17.252 -3.29111 -1.27663
17.2647 -3.28079 -1.27677
17.2693 -3.26167 -1.27384
17.2761 -3.2565 -1.27491
17.3103 -3.26468 -1.28422
17.3046 -3.2368 -1.27722
17.3174 -3.22548 -1.27835
17.3413 -3.2239 -1.28358
17.3428 -3.20285 -1.27963
17.3446 -3.1928 -1.27766
17.3746 -3.19608 -1.28594
17.3598 -3.16141 -1.27486
17.3807 -3.15691 -1.27906
17.4016 -3.1534 -1.28326
17.398 -3.12747 -1.27827
17.4059 -3.12227 -1.27835
17.4369 -3.12752 -1.28664
17.4262 -3.09577 -1.27859
17.4501 -3.09418 -1.28382
17.4608 -3.08092 -1.28394
17.4674 -3.06375 -1.28203
17.4811 -3.05341 -1.28318
17.4972 -3.05502 -1.28732
17.4926 -3.03012 -1.28132
17.5124 -3.02463 -1.28552
17.5211 -3.00942 -1.28462
17.5236 -2.98934 -1.28168
17.5445 -2.98483 -1.28588
17.5615 -2.98742 -1.29104
17.5569 -2.96252 -1.28504
17.5686 -2.95023 -1.28517
17.5955 -2.94958 -1.29242
17.591 -2.92467 -1.28642
17.6047 -2.91333 -1.28757
17.6176 -2.91202 -1.29069
17.6121 -2.88714 -1.28468
17.6167 -2.86902 -1.28275
17.6466 -2.87029 -1.29103
17.6482 -2.85024 -1.28708
17.6609 -2.83893 -1.28822
17.6718 -2.83666 -1.29132
17.6764 -2.81854 -1.2884
17.6952 -2.81108 -1.29259
17.716 -2.80558 -1.29679
17.7125 -2.78165 -1.2918
17.7171 -2.76453 -1.28987
17.732 -2.76416 -1.29301
17.7417 -2.74992 -1.29312
17.7605 -2.74346 -1.29731
17.7691 -2.72825 -1.29642
17.7696 -2.70722 -1.29346
17.7742 -2.6901 -1.29153
17.8072 -2.6923 -1.30083
17.7978 -2.67552 -1.29577
17.8095 -2.66223 -1.2959
17.8344 -2.65863 -1.30214
17.8299 -2.63572 -1.29714
17.8375 -2.62053 -1.29624
17.8522 -2.60917 -1.29839
17.852 -2.59917 -1.29641
17.8687 -2.58976 -1.29958
17.8814 -2.57744 -1.30072
17.888 -2.56127 -1.29981
17.8916 -2.54418 -1.29787
17.9124 -2.53667 -1.30208
17.9091 -2.52374 -1.29907
17.9198 -2.51048 -1.30019
17.9416 -2.50395 -1.30541
17.9442 -2.48587 -1.30246
17.9487 -2.46776 -1.30153
17.9705 -2.46122 -1.30575
17.9683 -2.45027 -1.30374
17.985 -2.44086 -1.30692
17.9977 -2.42755 -1.30806
17.9983 -2.40852 -1.3051
18.013 -2.39716 -1.30825
18.0337 -2.38966 -1.31246
18.0244 -2.37387 -1.3074
18.0371 -2.36156 -1.30854
18.0599 -2.355 -1.31376
18.0523 -2.33118 -1.30873
18.061 -2.31596 -1.30884
18.0787 -2.30652 -1.31202
18.0742 -2.28462 -1.30701
18.077 -2.27555 -1.30705
18.1049 -2.27187 -1.31432
18.0983 -2.24902 -1.3093
18.112 -2.23668 -1.31045
18.1348 -2.22913 -1.31667
18.1313 -2.2082 -1.31267
18.1331 -2.19915 -1.31171
18.167 -2.19733 -1.32103
18.1564 -2.17257 -1.31397
18.1691 -2.16026 -1.31611
18.1878 -2.1498 -1.3203
18.1874 -2.13081 -1.31733
18.1912 -2.12271 -1.31738
18.1988 -2.10752 -1.31747
18.2155 -2.09611 -1.32065
18.2211 -2.07996 -1.31973
18.2409 -2.07048 -1.32393
18.2364 -2.04958 -1.31992
18.2422 -2.04244 -1.32099
18.269 -2.03578 -1.32725
18.2554 -2.0111 -1.32016
18.2711 -1.99971 -1.32333
18.2898 -1.98826 -1.32753
18.2833 -1.9664 -1.3225
18.2972 -1.96306 -1.32564
18.3109 -1.95073 -1.32879
18.3165 -1.93459 -1.32786
18.3292 -1.92127 -1.33001
18.3489 -1.91079 -1.33421
18.3313 -1.8842 -1.32609
18.3681 -1.88131 -1.33644
18.373 -1.87419 -1.33649
18.3755 -1.85612 -1.33555
18.3932 -1.84469 -1.33873
18.4029 -1.83045 -1.33985
18.4065 -1.81335 -1.33891
18.4342 -1.80568 -1.34618
18.4269 -1.79385 -1.34313
18.4345 -1.77766 -1.34323
18.4553 -1.76715 -1.34744
18.4689 -1.75381 -1.35059
18.4846 -1.74143 -1.35376
18.5053 -1.73092 -1.35797
18.5242 -1.72947 -1.36416
18.5469 -1.71891 -1.36939
18.6069 -1.72346 -1.38794
18.6326 -1.71484 -1.3942
18.6694 -1.70995 -1.40455
18.7223 -1.71067 -1.42105
18.7681 -1.70856 -1.43449
18.8172 -1.71738 -1.44993
18.8529 -1.71051 -1.46028
18.8968 -1.70745 -1.4727
18.9144 -1.69402 -1.47689
18.9189 -1.6749 -1.47596
18.9265 -1.65871 -1.47706
18.9323 -1.65056 -1.47713
18.9278 -1.62866 -1.47412
18.9304 -1.60959 -1.47218
18.949 -1.59714 -1.47737
18.9566 -1.57994 -1.47747
18.9591 -1.56087 -1.47653
18.9559 -1.54895 -1.47452
18.9484 -1.52712 -1.46948
18.9298 -1.50156 -1.46135
18.9303 -1.48153 -1.45939
18.9359 -1.46439 -1.45947
18.9395 -1.4463 -1.45953
18.9392 -1.4363 -1.45854
18.9368 -1.41635 -1.45555
18.9413 -1.39823 -1.45562
18.9358 -1.37636 -1.45161
18.9394 -1.35826 -1.45167
18.954 -1.3439 -1.45483
18.9387 -1.32927 -1.44871
18.9533 -1.31391 -1.45187
18.9579 -1.29679 -1.45195
18.9574 -1.27679 -1.44997
18.972 -1.26243 -1.45314
18.9555 -1.23782 -1.44602
18.9633 -1.23063 -1.44711
18.9608 -1.21068 -1.44511
18.9664 -1.19354 -1.44519
18.976 -1.1773 -1.44731
18.9906 -1.16194 -1.45047
18.9731 -1.13836 -1.44335
18.9756 -1.12029 -1.4424
18.9694 -1.10843 -1.43936
18.985 -1.09405 -1.44353
19.0026 -1.07862 -1.44772
19.0011 -1.05965 -1.44574
19.0057 -1.04153 -1.44581
18.9902 -1.01889 -1.4397
18.989 -1.00892 -1.43771
19.0096 -0.995416 -1.44392
18.9951 -0.972758 -1.43783
19.0067 -0.95747 -1.43996
19.0072 -0.93845 -1.439
19.0078 -0.91943 -1.43803
19.0135 -0.911286 -1.4391
19.0211 -0.894096 -1.4402
19.0137 -0.87427 -1.43716
19.0232 -0.857031 -1.43828
19.0308 -0.839842 -1.44038
19.0364 -0.8227 -1.44046
19.0201 -0.810087 -1.43433
19.0237 -0.791995 -1.43439
19.0292 -0.774854 -1.43547
19.0328 -0.756761 -1.43553
19.0474 -0.740402 -1.4387
19.0339 -0.71972 -1.4336
19.0377 -0.710626 -1.43465
19.0583 -0.696122 -1.43987
19.0238 -0.670946 -1.42759
19.0383 -0.655588 -1.43175
19.0639 -0.640965 -1.43902
19.0374 -0.617595 -1.4288
19.046 -0.601382 -1.43091
19.0608 -0.594022 -1.43506
19.0323 -0.570701 -1.42483
19.0409 -0.553488 -1.42694
19.0625 -0.538962 -1.43317
19.05 -0.518255 -1.42808
19.0486 -0.500283 -1.4271
19.0593 -0.49202 -1.43022
19.0529 -0.473168 -1.42719
19.0575 -0.455053 -1.42826
19.071 -0.438718 -1.43141
19.0586 -0.419011 -1.42633
19.0581 -0.400015 -1.42535
19.0649 -0.391849 -1.42743
19.0595 -0.372974 -1.42541
19.065 -0.354834 -1.42649
19.0656 -0.336813 -1.42553
19.0621 -0.317889 -1.42353
19.0567 -0.299015 -1.42151
19.0892 -0.284223 -1.43084
19.062 -0.271877 -1.4226
19.0636 -0.253833 -1.42264
19.0811 -0.237402 -1.42684
19.0587 -0.216938 -1.41966
19.0682 -0.199701 -1.42178
19.0738 -0.18256 -1.42286
19.0596 -0.171899 -1.41774
19.0701 -0.154639 -1.42087
19.0627 -0.135812 -1.41783
19.0662 -0.117721 -1.41889
19.0748 -0.100508 -1.421
19.0714 -0.0815857 -1.42
19.0492 -0.0711184 -1.41281
19.0707 -0.0545923 -1.41904
19.0703 -0.0365961 -1.41806
19.0658 -0.0176985 -1.41705
19.0674 0.000345156 -1.4171
19.0799 0.0176546 -1.42024
19.0557 0.0280728 -1.41303
19.0723 0.045479 -1.41722
19.0748 0.0635456 -1.41827
19.0604 0.0822039 -1.41316
19.0849 0.0988021 -1.42042
19.0755 0.11758 -1.41736
19.0631 0.136286 -1.41328
19.0708 0.144475 -1.41636
19.0853 0.162832 -1.42053
19.0709 0.18149 -1.41543
19.0675 0.199413 -1.41442
19.0581 0.217191 -1.41136
19.0586 0.23521 -1.4114
19.0634 0.244328 -1.41246
19.062 0.2623 -1.41147
19.0635 0.280342 -1.41252
19.0561 0.299168 -1.41048
19.0626 0.316333 -1.41157
19.0662 0.334422 -1.41363
19.061 0.3443 -1.4116
19.0565 0.362198 -1.41059
19.0611 0.380313 -1.41166
19.0626 0.398357 -1.4117
19.0532 0.416135 -1.40864
19.0647 0.434418 -1.41278
19.0605 0.443319 -1.41176
19.0541 0.461169 -1.40972
19.0427 0.4789 -1.40565
19.0502 0.497086 -1.40875
19.0647 0.515441 -1.41391
18.9063 0.529537 -1.42145
18.9108 0.546652 -1.42352
18.9206 0.55589 -1.42662
18.9181 0.573837 -1.42563
18.9227 0.590951 -1.4277
18.9163 0.608802 -1.42567
18.9198 0.626891 -1.42773
18.9054 0.64355 -1.42263
18.9162 0.652811 -1.42674
18.9157 0.670806 -1.42677
18.9014 0.687463 -1.42266
18.9199 0.705915 -1.42886
18.9184 0.723885 -1.42888
18.915 0.740807 -1.42787
18.9208 0.749949 -1.42994
18.8984 0.766414 -1.42276
18.9089 0.784673 -1.42689
18.9244 0.803051 -1.43307
18.9081 0.81966 -1.42794
18.8897 0.836223 -1.42179
18.9134 0.846797 -1.43003
18.898 0.863429 -1.42592
18.8936 0.880327 -1.4249
18.9051 0.89961 -1.42904
18.8897 0.915243 -1.42492
18.8923 0.93331 -1.42598
18.9127 0.952809 -1.4332
18.8817 0.959061 -1.42292
18.9021 0.978558 -1.43114
18.8907 0.995288 -1.42806
18.8684 1.01075 -1.42088
18.8889 1.03025 -1.4281
18.8815 1.04708 -1.42606
18.8912 1.05731 -1.43017
18.8818 1.07409 -1.42811
18.8833 1.09213 -1.42915
18.8809 1.10908 -1.42916
18.8924 1.12836 -1.4333
18.888 1.14626 -1.43328
18.8699 1.15282 -1.42712
18.8843 1.17218 -1.43329
18.8839 1.19017 -1.43332
18.8695 1.20583 -1.43021
18.8611 1.22263 -1.42816
18.8796 1.24308 -1.43436
18.8406 1.24614 -1.422
18.87 1.26785 -1.43331
18.8596 1.28461 -1.43024
18.8433 1.29921 -1.42611
18.8587 1.32059 -1.43229
18.8483 1.33634 -1.43022
18.8362 1.34305 -1.42612
18.8586 1.3646 -1.43437
18.8462 1.38031 -1.43127
18.8398 1.39715 -1.43024
18.8364 1.41507 -1.43024
18.8498 1.4354 -1.4364
18.8206 1.4477 -1.42714
18.8372 1.46011 -1.43332
18.8418 1.47822 -1.43639
18.8215 1.49273 -1.43023
18.827 1.51187 -1.43331
18.8325 1.53101 -1.43639
18.8161 1.54561 -1.43226
18.8308 1.55797 -1.43742
18.8293 1.57594 -1.43844
18.816 1.59062 -1.43533
18.8344 1.61307 -1.44254
18.8062 1.62439 -1.4343
18.7839 1.63785 -1.42811
18.8221 1.66478 -1.44251
18.8021 1.6693 -1.43633
18.7907 1.68503 -1.43425
18.8012 1.70528 -1.43938
18.7987 1.72323 -1.43939
18.7983 1.74122 -1.44041
18.7849 1.7559 -1.43731
18.8025 1.76933 -1.4445
18.7783 1.78175 -1.43729
18.7907 1.80305 -1.44344
18.7823 1.81985 -1.44239
18.761 1.83234 -1.43621
18.7804 1.85581 -1.44443
18.7782 1.86476 -1.44443
18.7718 1.88061 -1.44439
18.7703 1.89858 -1.44541
18.76 1.91433 -1.44334
18.7704 1.93558 -1.44847
18.761 1.95236 -1.44741
18.7548 1.95921 -1.44536
18.7544 1.9772 -1.44739
18.7559 1.99724 -1.44943
18.7455 2.012 -1.44736
18.75 2.03211 -1.45044
18.7465 2.05003 -1.45143
18.7542 2.06121 -1.45552
18.7419 2.07592 -1.45243
18.7365 2.09379 -1.45241
18.7271 2.10957 -1.45135
18.7345 2.12975 -1.45545
18.7222 2.14446 -1.45336
18.698 2.15587 -1.44715
18.7076 2.16811 -1.45126
18.7091 2.18815 -1.45331
18.6899 2.19968 -1.44814
18.7032 2.22401 -1.45531
18.6958 2.23983 -1.45527
18.6865 2.25561 -1.4532
18.6912 2.26672 -1.45627
18.6798 2.28145 -1.45418
18.6843 2.30156 -1.45826
18.6729 2.31729 -1.45618
18.6823 2.33952 -1.4613
18.6729 2.3553 -1.46024
18.6658 2.36213 -1.45918
18.6604 2.379 -1.45916
18.6569 2.39692 -1.46016
18.6475 2.41269 -1.4591
18.6372 2.42744 -1.45802
18.6574 2.45494 -1.46726
18.6433 2.4596 -1.46313
18.6261 2.47218 -1.45899
18.6285 2.49224 -1.46205
18.6251 2.51016 -1.46404
18.6078 2.52275 -1.4599
18.6063 2.54071 -1.46192
18.6071 2.55073 -1.46294
18.6105 2.57182 -1.46701
18.5952 2.58445 -1.46388
18.5987 2.60554 -1.46695
18.5962 2.62448 -1.46896
18.5809 2.63711 -1.46584
18.5863 2.65925 -1.46992
18.5801 2.6671 -1.46988
18.5738 2.68294 -1.46984
18.5604 2.69762 -1.46774
18.5747 2.72297 -1.47492
18.5604 2.73663 -1.47281
18.549 2.75135 -1.47172
18.5597 2.76561 -1.47585
18.5503 2.78139 -1.47578
18.5478 2.80033 -1.47779
18.5364 2.81506 -1.47571
18.5389 2.83612 -1.47977
18.5275 2.85085 -1.47868
18.5292 2.86189 -1.48072
18.5199 2.87766 -1.47966
18.5134 2.89451 -1.48062
18.5139 2.91452 -1.48366
18.5016 2.92823 -1.48157
18.4814 2.93874 -1.47739
18.4956 2.96609 -1.48557
18.4845 2.97082 -1.48248
18.4712 2.9845 -1.48037
18.4628 3.0013 -1.48032
18.4633 3.02131 -1.48336
18.4549 3.03711 -1.48331
18.4514 3.05603 -1.4853
18.4452 3.06288 -1.48526
18.4319 3.07656 -1.48315
18.4304 3.09652 -1.48517
18.4151 3.10915 -1.48305
18.4165 3.13019 -1.4861
18.4131 3.14911 -1.4881
18.402 3.15384 -1.486
18.3975 3.17173 -1.48799
18.3989 3.19377 -1.49104
18.3915 3.21059 -1.49199
18.3684 3.21803 -1.48579
18.3629 3.2359 -1.48777
18.3597 3.24482 -1.48775
18.3552 3.26272 -1.48974
18.337 3.27328 -1.48558
18.3237 3.28696 -1.48448
18.3231 3.30795 -1.48751
18.3187 3.32584 -1.4895
18.3027 3.32745 -1.48535
18.312 3.35368 -1.49148
18.2986 3.36736 -1.49038
18.2932 3.38523 -1.49136
18.2877 3.4031 -1.49333
18.2774 3.41784 -1.49326
18.2722 3.42572 -1.49322
18.2608 3.44045 -1.49214
18.2622 3.46248 -1.49619
18.2499 3.47618 -1.4951
18.2395 3.49193 -1.49503
18.2321 3.50875 -1.49598
18.2188 3.52143 -1.49488
18.2136 3.52931 -1.49484
18.2091 3.5482 -1.49583
18.2046 3.56709 -1.49882
18.1854 3.57663 -1.49465
18.177 3.59243 -1.4956
18.1666 3.60818 -1.49553
18.1605 3.61503 -1.49448
18.1678 3.6412 -1.50159
18.1456 3.64967 -1.4974
18.1342 3.66339 -1.49632
18.1366 3.68745 -1.50138
18.1243 3.70116 -1.50028
18.1132 3.70389 -1.49818
18.1058 3.72171 -1.49914
18.1062 3.74372 -1.50318
18.088 3.75328 -1.50003
18.0893 3.77731 -1.50508
18.0692 3.78582 -1.5009
18.0698 3.79784 -1.50393
18.0732 3.82292 -1.509
18.0579 3.83455 -1.50788
18.0534 3.85345 -1.50987
18.0362 3.86403 -1.50772
18.0248 3.87875 -1.50764
18.0304 3.89389 -1.51172
18.0161 3.90654 -1.5106
18.0175 3.93058 -1.51466
17.9973 3.93809 -1.51148
17.9938 3.959 -1.51448
17.9863 3.97682 -1.51644
17.972 3.98948 -1.51432
17.9756 4.00357 -1.51838
17.9584 4.01315 -1.51623
17.9509 4.03197 -1.5182
17.9425 4.04876 -1.51914
17.936 4.06661 -1.52111
17.9227 4.07929 -1.52001
17.9244 4.09333 -1.52305
17.9198 4.11322 -1.52604
17.9007 4.12175 -1.52287
17.8893 4.13648 -1.52279
17.8848 4.15637 -1.52578
17.8636 4.16385 -1.52159
17.8594 4.17175 -1.52256
17.8529 4.1916 -1.52453
17.8337 4.19913 -1.52137
17.8272 4.21797 -1.52434
17.8139 4.23165 -1.52323
17.8045 4.24742 -1.52417
17.7824 4.25289 -1.51997
17.7821 4.26488 -1.52299
17.7815 4.28886 -1.52702
17.7603 4.29535 -1.52383
17.7529 4.31317 -1.52579
17.7356 4.32375 -1.52365
17.7321 4.34467 -1.52665
17.723 4.34945 -1.52557
17.7165 4.36829 -1.52854
17.7051 4.38301 -1.52846
17.6937 4.39874 -1.52938
17.6853 4.41553 -1.53132
17.6758 4.4323 -1.53226
17.6619 4.43296 -1.52913
17.6544 4.45178 -1.53109
17.642 4.46548 -1.531
17.6316 4.48123 -1.53293
17.6134 4.48979 -1.52977
17.6118 4.51375 -1.53479
17.6046 4.52057 -1.53474
17.5923 4.53328 -1.53464
17.5887 4.55619 -1.53865
17.5725 4.56679 -1.53751
17.5552 4.57638 -1.53536
17.54 4.58701 -1.53424
17.5513 4.61228 -1.54339
17.5331 4.62084 -1.54023
17.5237 4.63761 -1.54217
17.5074 4.64821 -1.54103
17.496 4.66294 -1.54095
17.4817 4.67559 -1.54084
17.4781 4.6985 -1.54584
17.4574 4.691 -1.53863
17.4586 4.71903 -1.54569
17.4482 4.73478 -1.54662
17.4232 4.73717 -1.54239
17.4128 4.75291 -1.54331
17.413 4.78092 -1.54936
17.3971 4.77753 -1.54521
17.3857 4.79326 -1.54613
17.3889 4.82433 -1.55421
17.3581 4.81859 -1.54591
17.3448 4.83226 -1.5468
17.345 4.86026 -1.55385
17.3233 4.84974 -1.54563
17.3245 4.87977 -1.55369
17.3112 4.89344 -1.55359
17.2872 4.89486 -1.54837
17.2748 4.91056 -1.55027
17.2682 4.9314 -1.55325
17.2533 4.92904 -1.5501
17.2507 4.95397 -1.55512
17.2383 4.96967 -1.55603
17.223 4.9803 -1.5559
17.2097 4.99397 -1.5558
17.2002 5.01174 -1.55874
17.1723 5.00807 -1.55147
17.1787 5.03022 -1.55857
17.1625 5.04082 -1.55743
17.1346 5.03615 -1.55016
17.1406 5.07329 -1.56128
17.1195 5.07778 -1.55809
17.0965 5.08022 -1.55388
17.1058 5.10644 -1.56201
17.0886 5.11503 -1.56086
17.0608 5.11035 -1.55359
17.059 5.13931 -1.56062
17.0447 5.15196 -1.56051
17.0198 5.15035 -1.55527
17.0232 5.17143 -1.56134
17.0127 5.18918 -1.56327
16.9839 5.18248 -1.55598
16.9793 5.20736 -1.56198
16.963 5.21697 -1.56084
16.9458 5.22555 -1.5597
16.9435 5.23949 -1.5627
16.934 5.25826 -1.56564
16.9196 5.27091 -1.56652
16.8995 5.27642 -1.56334
16.8872 5.29012 -1.56425
16.8709 5.30172 -1.56412
16.8575 5.3154 -1.56601
16.8465 5.31713 -1.56391
16.8389 5.33894 -1.56788
16.8179 5.34143 -1.56468
16.8122 5.36729 -1.56967
16.795 5.37587 -1.56952
16.7768 5.38243 -1.56736
16.7774 5.40044 -1.5724
16.7544 5.39988 -1.56818
16.7468 5.4237 -1.57215
16.7353 5.44042 -1.57507
16.7172 5.44797 -1.57391
16.7057 5.46569 -1.57583
16.6966 5.46847 -1.57575
16.6765 5.47298 -1.57257
16.6584 5.48054 -1.57141
16.6488 5.50231 -1.57536
16.6326 5.51091 -1.57522
16.6105 5.51337 -1.57101
16.6039 5.53821 -1.57699
16.5938 5.53996 -1.5759
16.5757 5.54752 -1.57474
16.5604 5.55915 -1.57462
16.5422 5.56571 -1.57346
16.5355 5.59254 -1.57944
16.5173 5.5991 -1.57828
16.5121 5.60897 -1.58025
16.4958 5.61857 -1.58011
16.4824 5.63425 -1.58101
16.4652 5.64382 -1.58086
16.447 5.65038 -1.5797
16.4365 5.67012 -1.58363
16.4265 5.67188 -1.58254
16.4064 5.67639 -1.58036
16.3882 5.68295 -1.5792
16.3757 5.70064 -1.58211
16.3567 5.70517 -1.57994
16.348 5.72996 -1.5849
16.3251 5.7274 -1.58068
16.3169 5.7342 -1.58161
16.2988 5.73976 -1.57945
16.2815 5.74934 -1.57931
16.2606 5.74983 -1.57611
16.25 5.77157 -1.58105
16.2385 5.79029 -1.58397
16.2275 5.79002 -1.58186
16.2065 5.79251 -1.57967
16.1997 5.82134 -1.58665
16.1844 5.83197 -1.58753
16.1672 5.84155 -1.58738
16.1528 5.85719 -1.58927
16.1437 5.85997 -1.58919
16.1246 5.8655 -1.58802
16.1035 5.86699 -1.58483
16.0863 5.87557 -1.58468
16.0739 5.89327 -1.58759
16.0509 5.89171 -1.58437
16.0413 5.91547 -1.58932
16.0246 5.90306 -1.58314
16.0093 5.91669 -1.58502
15.9978 5.9364 -1.58894
15.9768 5.93689 -1.58575
15.9605 5.94849 -1.58661
15.9404 5.95101 -1.58443
15.9342 5.96085 -1.58639
15.9179 5.97045 -1.58725
15.8997 5.97901 -1.58709
15.8834 5.99061 -1.58796
15.8681 6.00224 -1.58883
15.848 6.00475 -1.58665
15.838 6.0065 -1.58656
15.8264 6.02821 -1.59148
15.812 6.04386 -1.59337
15.7873 6.03526 -1.58813
15.7747 6.05595 -1.59204
15.7519 6.05139 -1.58782
15.7337 6.05895 -1.58766
15.7283 6.07082 -1.59063
15.7084 6.07133 -1.58744
15.692 6.08393 -1.58931
15.672 6.08644 -1.58713
15.6566 6.09906 -1.589
15.6394 6.10964 -1.58986
15.6322 6.11747 -1.5908
15.6121 6.11897 -1.58962
15.5902 6.11744 -1.58641
15.5739 6.12804 -1.58727
15.5557 6.1356 -1.58711
15.5385 6.14418 -1.58696
15.5184 6.14768 -1.58578
15.5094 6.15046 -1.5857
15.4921 6.15904 -1.58655
15.4749 6.16762 -1.5864
15.4576 6.17819 -1.58826
15.4376 6.17971 -1.58607
15.4241 6.19937 -1.58998
15.4103 6.19004 -1.58583
15.3931 6.19962 -1.58669
15.3758 6.21019 -1.58754
15.3595 6.22179 -1.58941
15.3414 6.22835 -1.58925
15.325 6.23995 -1.59111
15.3132 6.23566 -1.58799
15.2959 6.24523 -1.58985
15.2769 6.24777 -1.58767
15.2558 6.24926 -1.58648
15.2432 6.27095 -1.59139
15.2195 6.26237 -1.58616
15.2123 6.27119 -1.5881
15.1969 6.28581 -1.59098
15.1731 6.27623 -1.58574
15.1586 6.29587 -1.59064
15.1386 6.29638 -1.58845
15.1177 6.29287 -1.58525
15.1022 6.31149 -1.58913
15.0914 6.30723 -1.58603
15.0759 6.32485 -1.59091
15.054 6.31931 -1.58669
15.035 6.32285 -1.58552
15.0204 6.34349 -1.59042
14.9995 6.34097 -1.58822
14.995 6.35886 -1.5932
14.9749 6.36237 -1.59202
14.954 6.35786 -1.58882
14.9385 6.37648 -1.5927
14.9167 6.36995 -1.58949
14.8976 6.37348 -1.58831
14.8857 6.40618 -1.59725
14.8704 6.38381 -1.58907
14.854 6.39841 -1.59194
14.8366 6.41098 -1.5948
14.8158 6.40647 -1.5916
14.7957 6.40898 -1.59041
14.783 6.43567 -1.59734
14.7703 6.42536 -1.5932
14.7512 6.42989 -1.59303
14.7329 6.43944 -1.59487
14.7138 6.44197 -1.5937
14.6938 6.44248 -1.59251
14.6801 6.46914 -1.60042
14.6683 6.46385 -1.5973
14.6483 6.46236 -1.59511
14.6328 6.48198 -1.6
14.6092 6.46741 -1.59375
14.5927 6.484 -1.59763
14.5737 6.48653 -1.59745
14.5527 6.48502 -1.59525
14.5436 6.4888 -1.59517
14.5271 6.50739 -1.60005
14.5054 6.49586 -1.59482
14.488 6.51143 -1.59869
14.4716 6.52803 -1.60256
14.4498 6.5185 -1.59834
14.4389 6.51623 -1.59723
14.4225 6.53082 -1.6011
14.3999 6.51727 -1.59487
14.3833 6.53986 -1.60075
14.365 6.54841 -1.60259
14.3425 6.52986 -1.59535
14.3333 6.53864 -1.59727
14.3176 6.56425 -1.60417
14.2925 6.53164 -1.59288
14.2769 6.55325 -1.59877
14.2586 6.5658 -1.60162
14.2377 6.55929 -1.59841
14.2203 6.57386 -1.60227
14.2095 6.5696 -1.60016
14.1887 6.56309 -1.59695
14.1712 6.57866 -1.60082
14.1512 6.58116 -1.60063
14.1303 6.57466 -1.59742
14.112 6.5862 -1.60027
14.1038 6.593 -1.60221
14.0829 6.59049 -1.6
14.063 6.589 -1.59881
14.0446 6.60055 -1.60166
14.0238 6.59304 -1.59845
14.0065 6.60661 -1.60131
13.9872 6.61814 -1.60415
13.9772 6.61789 -1.60406
13.9565 6.60439 -1.59884
13.9382 6.61793 -1.60269
13.9181 6.62144 -1.6025
13.8981 6.61995 -1.60131
13.8791 6.61949 -1.60014
13.8682 6.61522 -1.59903
13.849 6.62375 -1.60086
13.8307 6.63529 -1.60371
13.8099 6.62878 -1.6015
13.7907 6.63631 -1.60233
13.7707 6.63382 -1.60114
13.7624 6.64462 -1.60408
13.7425 6.64213 -1.60289
13.7224 6.64463 -1.6037
13.7024 6.64614 -1.60352
13.6825 6.64165 -1.60132
13.664 6.6582 -1.60618
13.6441 6.65571 -1.60498
13.635 6.66149 -1.60591
13.615 6.659 -1.60472
13.5942 6.65248 -1.60251
13.575 6.66001 -1.60434
13.5557 6.67054 -1.60718
13.5356 6.67304 -1.60799
13.5257 6.6718 -1.6069
13.5067 6.67033 -1.60672
13.4866 6.67484 -1.60753
13.4668 6.66735 -1.60434
13.4469 6.66087 -1.60214
13.4277 6.67039 -1.60497
13.4069 6.66288 -1.60276
13.3976 6.67465 -1.6057
13.3779 6.66217 -1.60149
13.3575 6.67567 -1.60532
13.3378 6.66418 -1.60212
13.3186 6.67371 -1.60495
13.2986 6.67122 -1.60376
13.2886 6.67097 -1.60367
13.2687 6.66948 -1.60248
13.2489 6.66 -1.59927
13.2296 6.67252 -1.60411
13.2097 6.66903 -1.60192
13.1897 6.66854 -1.60173
13.1805 6.67531 -1.60466
13.1608 6.66183 -1.60045
13.1407 6.66534 -1.60127
13.1206 6.66884 -1.60208
13.1007 6.66435 -1.60089
13.0817 6.66489 -1.60071
13.0618 6.6604 -1.59952
13.0519 6.65815 -1.59942
13.032 6.65367 -1.59722
13.0131 6.6492 -1.59604
12.9928 6.6627 -1.60087
12.973 6.65421 -1.59867
12.9541 6.64775 -1.59648
12.9441 6.6475 -1.59639
12.924 6.65201 -1.59821
12.9042 6.64652 -1.59601
12.8853 6.64106 -1.59482
12.8651 6.64956 -1.59765
12.8453 6.64207 -1.59545
12.8253 6.64058 -1.59526
12.8163 6.63836 -1.59517
12.795 6.65183 -1.59999
12.7763 6.64037 -1.5968
12.7564 6.63488 -1.5946
12.736 6.65038 -1.60043
12.7162 6.64089 -1.59723
12.706 6.64964 -1.60015
12.6872 6.64218 -1.59896
12.6672 6.63969 -1.59877
12.646 6.64916 -1.60159
12.626 6.64667 -1.60139
12.6084 6.63124 -1.5972
12.5971 6.64396 -1.60112
12.5771 6.64147 -1.60093
12.5571 6.64097 -1.60174
12.5383 6.63451 -1.60055
12.5183 6.63402 -1.60036
12.4982 6.63752 -1.60218
12.4795 6.62506 -1.59898
12.4694 6.62782 -1.59989
12.4494 6.62832 -1.6007
12.4295 6.62583 -1.60051
12.4094 6.62934 -1.60233
12.3895 6.62385 -1.60213
12.3694 6.62635 -1.60295
12.3595 6.62311 -1.60285
12.3394 6.62461 -1.60366
12.3193 6.62712 -1.60548
12.2994 6.62363 -1.60528
12.2795 6.62213 -1.60609
12.2606 6.61467 -1.60391
12.2483 6.62636 -1.60881
12.2295 6.6179 -1.60662
12.2096 6.61641 -1.60643
12.1871 6.63086 -1.61224
12.1707 6.61045 -1.60705
12.1472 6.62587 -1.61286
12.1284 6.62041 -1.61167
12.1139 6.63905 -1.61857
12.0962 6.62561 -1.61538
12.0773 6.62015 -1.61519
12.0551 6.6276 -1.61799
12.034 6.63308 -1.6208
12.0164 6.61764 -1.61761
12.0052 6.62337 -1.61952
11.9875 6.61093 -1.61733
11.9665 6.61241 -1.61814
11.9477 6.60495 -1.61695
11.9266 6.60743 -1.61975
11.9043 6.61488 -1.62256
11.889 6.5915 -1.61637
11.8767 6.6022 -1.62027
11.8545 6.60865 -1.62408
11.8369 6.59322 -1.61989
11.8169 6.59172 -1.62169
11.7958 6.5952 -1.6235
11.7782 6.57877 -1.61931
11.7682 6.57853 -1.62022
11.7482 6.57703 -1.62103
11.7294 6.56857 -1.61983
11.7084 6.56905 -1.62164
11.6885 6.56556 -1.62144
11.6708 6.55512 -1.62026
11.6597 6.55585 -1.62116
11.6364 6.56527 -1.62595
11.6209 6.54789 -1.62078
11.6021 6.54043 -1.62059
11.5811 6.54091 -1.62239
11.5634 6.52747 -1.61921
11.5446 6.52001 -1.61902
11.5291 6.53762 -1.6249
11.5157 6.5133 -1.61873
11.4958 6.50981 -1.61954
11.4714 6.5222 -1.62533
11.4582 6.49488 -1.61816
11.4371 6.49636 -1.61997
11.4217 6.50897 -1.62584
11.4084 6.48665 -1.61968
11.3885 6.48116 -1.61948
11.3663 6.48561 -1.62328
11.3573 6.44839 -1.61214
11.3287 6.46968 -1.6219
11.312 6.45827 -1.61973
11.3 6.45997 -1.62162
11.2854 6.44161 -1.61645
11.2557 6.46788 -1.62721
11.2478 6.42668 -1.61607
11.2268 6.42517 -1.61687
11.2047 6.42762 -1.62067
11.1991 6.41348 -1.61659
11.1781 6.41296 -1.61839
11.1571 6.41344 -1.6202
11.1415 6.39506 -1.61602
11.1237 6.38662 -1.61584
11.1006 6.39205 -1.61963
11.0939 6.37988 -1.61655
11.0794 6.36253 -1.61238
11.0508 6.38182 -1.62215
11.0341 6.36941 -1.61997
11.0207 6.34808 -1.61481
10.9943 6.36042 -1.62158
10.9831 6.33215 -1.61343
10.971 6.33485 -1.61632
10.9467 6.34225 -1.6211
10.9344 6.31894 -1.61495
10.9123 6.3194 -1.61774
10.8967 6.30501 -1.61557
10.8822 6.28666 -1.6114
10.8679 6.2953 -1.61528
10.8491 6.28784 -1.6151
10.8356 6.2695 -1.61194
10.8157 6.26301 -1.61174
10.7914 6.27141 -1.61753
10.7801 6.24613 -1.61138
10.7602 6.24164 -1.61218
10.7513 6.23742 -1.61209
10.7336 6.22598 -1.61091
10.7148 6.21952 -1.61072
10.6949 6.21503 -1.61153
10.6792 6.20164 -1.61036
10.6604 6.19317 -1.61017
10.6526 6.18698 -1.60908
10.6338 6.17852 -1.60889
10.6138 6.17502 -1.6107
10.5929 6.1715 -1.61249
10.5826 6.14625 -1.60636
10.5616 6.14473 -1.60816
10.5374 6.14813 -1.61194
10.537 6.12613 -1.6059
10.514 6.12755 -1.60968
10.4919 6.12701 -1.61247
10.4816 6.10275 -1.60634
10.4596 6.10121 -1.60913
10.4376 6.10066 -1.61192
10.4361 6.08063 -1.60587
10.4204 6.06824 -1.6047
10.3974 6.06967 -1.60849
10.3796 6.05823 -1.6073
10.3608 6.05077 -1.60811
10.343 6.04133 -1.60793
10.3231 6.03683 -1.60974
10.3142 6.03261 -1.60965
10.2975 6.0212 -1.60847
10.2797 6.01176 -1.60829
10.2652 5.9954 -1.60612
10.2389 6.00275 -1.61189
10.2296 5.97752 -1.60576
10.2175 5.97822 -1.60765
10.1987 5.97175 -1.60846
10.1809 5.96231 -1.60828
10.1653 5.94893 -1.60711
10.1401 5.9523 -1.61188
10.1255 5.93694 -1.60972
10.1109 5.92158 -1.60755
10.101 5.91833 -1.60845
10.0863 5.90497 -1.60729
10.0665 5.89848 -1.6081
10.0498 5.88607 -1.60692
10.0393 5.86681 -1.60379
10.0121 5.87213 -1.60954
10.0021 5.86889 -1.60944
9.98753 5.85352 -1.60828
9.96348 5.85393 -1.61206
9.94881 5.84056 -1.6109
9.93315 5.82718 -1.60873
9.91431 5.81971 -1.61054
9.89132 5.81814 -1.61332
9.88975 5.8021 -1.60928
9.87197 5.79266 -1.61009
9.85 5.79012 -1.61288
9.83333 5.7767 -1.61171
9.8145 5.76924 -1.61252
9.79464 5.76274 -1.61432
9.7889 5.7526 -1.61225
9.77007 5.74514 -1.61306
9.7544 5.73175 -1.61289
9.73243 5.7292 -1.61568
9.71676 5.71581 -1.61451
9.68959 5.72014 -1.62026
9.69013 5.70015 -1.61523
9.67963 5.68089 -1.6121
9.64624 5.69306 -1.62081
9.63891 5.66788 -1.6147
9.62215 5.65747 -1.61552
9.60229 5.65097 -1.61733
9.58976 5.63267 -1.61418
9.57463 5.63629 -1.61804
9.55374 5.63077 -1.62084
9.54535 5.60756 -1.61572
9.53279 5.59025 -1.61357
9.50565 5.59358 -1.61932
9.50248 5.5625 -1.61224
9.49566 5.55533 -1.61117
9.46229 5.5665 -1.61987
9.45076 5.54822 -1.61773
9.42467 5.54957 -1.62249
9.40169 5.547 -1.62627
9.3933 5.52379 -1.62215
9.37035 5.52022 -1.62493
9.35733 5.51989 -1.62781
9.34789 5.49866 -1.62369
9.33324 5.4843 -1.62252
9.31445 5.47483 -1.62433
9.30809 5.45068 -1.61923
9.29031 5.44123 -1.62005
9.2773 5.44091 -1.62193
9.26579 5.42162 -1.61979
9.25317 5.40631 -1.61864
9.22819 5.40369 -1.6224
9.22597 5.37464 -1.61534
9.20716 5.36617 -1.61714
9.19003 5.36974 -1.62099
9.18466 5.34561 -1.6169
9.17001 5.33125 -1.61574
9.14708 5.32668 -1.61952
9.13966 5.30449 -1.61541
9.12091 5.29403 -1.61622
9.09795 5.29046 -1.61999
9.1015 5.27055 -1.61399
9.08063 5.26403 -1.61679
9.05355 5.26435 -1.62253
9.04822 5.23922 -1.61744
9.02943 5.22975 -1.61925
9.00959 5.22226 -1.62105
9.01521 5.1994 -1.61507
8.99433 5.19288 -1.61786
8.97553 5.18441 -1.61867
8.96398 5.16613 -1.61753
8.94625 5.15469 -1.61834
8.92955 5.14227 -1.61817
8.91279 5.13185 -1.61999
8.91319 5.11686 -1.61597
8.87997 5.12204 -1.62467
8.88287 5.08911 -1.61564
8.8579 5.08549 -1.6204
8.835 5.07992 -1.62418
8.83375 5.05189 -1.61712
8.82487 5.04667 -1.61803
8.8061 5.0362 -1.61983
8.7966 5.01697 -1.61671
8.77986 5.00555 -1.61854
8.7611 4.99508 -1.61934
8.74953 4.97779 -1.61821
8.74065 4.97257 -1.61911
8.7332 4.95139 -1.61601
8.72163 4.9341 -1.61487
8.70078 4.92658 -1.61766
8.68202 4.91611 -1.61847
8.67765 4.89201 -1.61439
8.65785 4.88251 -1.61719
8.64383 4.88216 -1.62005
8.63638 4.86098 -1.61695
8.62687 4.84174 -1.61483
8.59988 4.83907 -1.61957
8.59343 4.81791 -1.61648
8.58186 4.80062 -1.61534
8.56786 4.79927 -1.6182
8.56552 4.77421 -1.61314
8.55086 4.75985 -1.61398
8.51872 4.76205 -1.62168
8.52462 4.72919 -1.61268
8.50791 4.71678 -1.61351
8.4799 4.71408 -1.62024
8.48851 4.69229 -1.61328
8.46972 4.68283 -1.61509
8.44788 4.67428 -1.61887
8.43835 4.65604 -1.61675
